               315000              -615000     40.9258918762207
               315000              -600000     40.5650291442871
               315000              -585000      40.146915435791
               315000              -570000     39.6473922729492
               315000              -555000     39.0435981750488
               315000              -540000     38.3199424743652
               315000              -525000     37.5193748474121
               315000              -510000     36.7023239135742
               315000              -495000     36.0315933227539
               315000              -480000     35.8600807189941
               315000              -465000     35.7895202636719
               315000              -450000      35.824649810791
               315000              -435000     35.9199142456055
               315000              -420000     36.0842819213867
               315000              -405000     36.3050689697266
               315000              -390000     36.5598297119141
               315000              -375000     36.8056945800781
               315000              -360000     37.0104522705078
               315000              -345000     37.1336288452148
               315000              -330000     37.1662712097168
               315000              -315000     37.1317520141602
               315000              -300000     37.0677108764648
               315000              -285000     36.9998054504395
               315000              -270000     36.9382362365723
               315000              -255000     36.9004135131836
               315000              -240000     36.9109230041504
               315000              -225000     36.9912033081055
               315000              -210000     37.1462707519531
               315000              -195000     37.3576507568359
               315000              -180000     37.5716819763184
               315000              -165000     37.6362228393555
               315000              -150000     37.3662567138672
               315000              -135000     36.8440132141113
               315000              -120000     36.2147216796875
               315000              -105000     35.5460395812988
               315000               -90000     34.8441848754883
               315000               -75000     34.1469802856445
               315000               -60000     33.4745407104492
               315000               -45000     32.8520317077637
               315000               -30000     32.3010444641113
               315000               -15000     31.8381004333496
               315000                    0     31.4704341888428
               315000                15000       31.19313621521
               315000                30000     31.0040683746338
               315000                45000     30.8768615722656
               315000                60000     30.8022747039795
               315000                75000     30.7715492248535
               315000                90000     30.7840366363525
               315000               105000     30.8264484405518
               315000               120000     30.9077548980713
               315000               135000     31.0047283172607
               315000               150000     31.1060943603516
               315000               165000     31.1756649017334
               315000               180000     31.1459426879883
               315000               195000     31.0317783355713
               315000               210000     30.8926944732666
               315000               225000      30.728874206543
               315000               240000     30.5790882110596
               315000               255000     30.4529724121094
               315000               270000     30.3767108917236
               315000               285000     30.3797283172607
               315000               300000     30.4888553619385
               315000               315000     30.7425651550293
               315000               330000     31.1510982513428
               315000               345000     31.7170028686523
               315000               360000     32.4002304077148
               315000               375000     33.1605186462402
               315000               390000     33.9816131591797
               315000               405000     34.8491287231445
               315000               420000      35.748950958252
               315000               435000     36.6807250976563
               315000               450000     37.6282691955566
               315000               465000      38.560619354248
               315000               480000        39.4423828125
               315000               495000      40.177375793457
               315000               510000     40.6410217285156
               315000               525000     40.8296203613281
               315000               540000     40.7914581298828
               315000               555000     40.5844039916992
               315000               570000     40.2511329650879
               315000               585000      39.823673248291
               315000               600000     39.3341598510742
               315000               615000     38.8110542297363
               315000               630000     38.2669372558594
               315000               645000     37.7265892028809
               315000               660000     37.2097778320313
               315000               675000     36.7190971374512
               315000               690000     36.2760925292969
               315000               705000     35.8552055358887
               315000               720000     35.4738502502441
               315000               735000     35.1171035766602
               315000               750000     34.8091850280762
               315000               765000     34.5902214050293
               315000               780000     34.4695587158203
               315000               795000     34.4983444213867
               315000               810000       34.63916015625
               315000               825000     34.8674774169922
               315000               840000      35.051586151123
               315000               855000     35.1620330810547
               315000               870000     35.2128829956055
               315000               885000     35.2198448181152
               315000               900000     35.1718521118164
               315000               915000     35.0879974365234
               315000               930000     34.9799270629883
               315000               945000     34.8774948120117
               315000               960000     34.8108978271484
               315000               975000     34.8906364440918
               315000               990000     35.1617851257324
               315000              1005000     35.6731605529785
               315000              1020000     36.2514381408691
               315000              1035000     36.8230285644531
               315000              1050000     37.3597450256348
               315000              1065000     37.8295860290527
               315000              1080000     38.2388114929199
               315000              1095000     38.5896949768066
               315000              1110000     38.8959808349609
               315000              1125000     39.1827049255371
               315000              1140000     39.4565849304199
               315000              1155000     39.6994857788086
               315000              1170000     39.8953704833984
               315000              1185000     39.9913482666016
               315000              1200000     40.0292816162109
               315000              1215000     39.9857063293457
               315000              1230000      39.888729095459
               315000              1245000     39.7533531188965
               315000              1260000     39.5554504394531
               315000              1275000     39.3457260131836
               315000              1290000     39.0573959350586
               315000              1305000     38.7280731201172
               315000              1320000     38.2921562194824
               315000              1335000     37.7355690002441
               315000              1350000     37.1461296081543
               315000              1365000     36.5465278625488
               315000              1380000     35.9543113708496
               315000              1395000     35.3502807617188
               315000              1410000     34.7501335144043
               315000              1425000     34.1776885986328
               315000              1440000     33.6768836975098
               315000              1455000      33.275463104248
               315000              1470000     33.0261917114258
               315000              1485000     32.8703269958496
               315000              1500000     32.7625007629395
               315000              1515000     32.6060333251953
               315000              1530000     32.3756256103516
               315000              1545000     32.0765113830566
               315000              1560000     31.6827392578125
               315000              1575000     31.2075386047363
               315000              1590000       30.65403175354
               315000              1605000     30.0487155914307
               315000              1620000     29.4123382568359
               315000              1635000     28.7939605712891
               315000              1650000     28.3551769256592
               315000              1665000     28.1972999572754
               315000              1680000     28.2103309631348
               315000              1695000     28.2725162506104
               315000              1710000     28.3494777679443
               315000              1725000     28.4215183258057
               315000              1740000     28.4672164916992
               315000              1755000     28.5022048950195
               315000              1770000     28.5258483886719
               315000              1785000     28.5701675415039
               315000              1800000     28.6766033172607
               315000              1815000     28.8896675109863
               315000              1830000     29.2376098632813
               315000              1845000      29.734748840332
               315000              1860000     30.3677444458008
               315000              1875000     31.1127185821533
               315000              1890000     31.9514827728271
               315000              1905000     32.8345222473145
               315000              1920000     33.7223510742188
               315000              1935000     34.5834770202637
               315000              1950000     35.3521385192871
               315000              1965000     36.0183219909668
               315000              1980000     36.5317153930664
               315000              1995000     36.8268203735352
               315000              2010000     36.9426651000977
               315000              2025000     36.9231071472168
               315000              2040000     36.7973709106445
               315000              2055000     36.5638427734375
               315000              2070000      36.252571105957
               315000              2085000     35.8551597595215
               315000              2100000     35.3778953552246
               315000              2115000     34.8086891174316
               315000              2130000     34.1505584716797
               315000              2145000     33.4105529785156
               315000              2160000     32.6082954406738
               330000             -1980000     19.7191638946533
               330000             -1965000      18.348876953125
               330000             -1875000     12.3011665344238
               330000             -1245000     9.68083667755127
               330000             -1230000     10.8824996948242
               330000             -1215000     12.3882722854614
               330000             -1200000     13.9836597442627
               330000             -1185000     15.7012901306152
               330000             -1170000     17.3866844177246
               330000             -1155000     19.1612586975098
               330000             -1140000     20.8653430938721
               330000             -1125000     22.5921764373779
               330000             -1110000     24.3460712432861
               330000             -1095000     26.1447105407715
               330000             -1080000     28.0637187957764
               330000             -1065000     30.0261516571045
               330000             -1050000     32.0497665405273
               330000             -1035000     34.0549201965332
               330000             -1020000     36.0070648193359
               330000             -1005000     37.8615913391113
               330000              -990000     39.5332260131836
               330000              -975000      40.903377532959
               330000              -960000      41.967098236084
               330000              -945000     42.7168159484863
               330000              -930000     43.2651176452637
               330000              -915000     43.6608924865723
               330000              -900000     43.9402465820313
               330000              -885000     44.1896553039551
               330000              -870000     44.3293647766113
               330000              -855000      44.453254699707
               330000              -840000     44.4947242736816
               330000              -825000     44.4464950561523
               330000              -810000     44.3145942687988
               330000              -795000     44.1131401062012
               330000              -780000     43.9124450683594
               330000              -765000     43.6708221435547
               330000              -750000     43.4426383972168
               330000              -735000     43.2053413391113
               330000              -720000     42.9648246765137
               330000              -705000     42.7287826538086
               330000              -690000     42.4559860229492
               330000              -675000     42.1781463623047
               330000              -660000     41.8609390258789
               330000              -645000     41.5213432312012
               330000              -630000     41.1598434448242
               330000              -615000      40.776985168457
               330000              -600000      40.369457244873
               330000              -585000     39.9129257202148
               330000              -570000     39.3860778808594
               330000              -555000     38.7746734619141
               330000              -540000     38.0661010742188
               330000              -525000     37.2838249206543
               330000              -510000     36.5413780212402
               330000              -495000     35.9366683959961
               330000              -480000     35.6924514770508
               330000              -465000     35.6018829345703
               330000              -450000     35.6026153564453
               330000              -435000     35.6729965209961
               330000              -420000     35.8042793273926
               330000              -405000     35.9885597229004
               330000              -390000     36.2054748535156
               330000              -375000     36.4247627258301
               330000              -360000     36.6175193786621
               330000              -345000     36.7510452270508
               330000              -330000     36.8164825439453
               330000              -315000     36.8310585021973
               330000              -300000     36.8257827758789
               330000              -285000     36.8137016296387
               330000              -270000     36.8056488037109
               330000              -255000     36.8167381286621
               330000              -240000     36.8728065490723
               330000              -225000     36.9985580444336
               330000              -210000     37.2064247131348
               330000              -195000     37.4633865356445
               330000              -180000     37.7342872619629
               330000              -165000     37.8465881347656
               330000              -150000     37.5849075317383
               330000              -135000     37.1159706115723
               330000              -120000     36.5329666137695
               330000              -105000           35.9140625
               330000               -90000      35.268238067627
               330000               -75000     34.6191215515137
               330000               -60000     33.9860916137695
               330000               -45000     33.3914184570313
               330000               -30000     32.8513565063477
               330000               -15000     32.3785705566406
               330000                    0     31.9817180633545
               330000                15000     31.6610794067383
               330000                30000      31.424633026123
               330000                45000     31.2605228424072
               330000                60000     31.1601982116699
               330000                75000     31.1135540008545
               330000                90000     31.1175403594971
               330000               105000     31.1564044952393
               330000               120000     31.2338352203369
               330000               135000     31.3333072662354
               330000               150000     31.4332046508789
               330000               165000     31.4980487823486
               330000               180000     31.4560489654541
               330000               195000     31.2716655731201
               330000               210000     31.0684776306152
               330000               225000     30.8538475036621
               330000               240000     30.6522979736328
               330000               255000      30.480598449707
               330000               270000     30.3511161804199
               330000               285000     30.3077640533447
               330000               300000     30.3636226654053
               330000               315000     30.5514621734619
               330000               330000     30.8779067993164
               330000               345000     31.3382263183594
               330000               360000         31.912109375
               330000               375000     32.5747108459473
               330000               390000     33.3052864074707
               330000               405000     34.0833625793457
               330000               420000     34.9045677185059
               330000               435000     35.7753028869629
               330000               450000     36.6954498291016
               330000               465000     37.6299743652344
               330000               480000     38.5362510681152
               330000               495000     39.3336181640625
               330000               510000     39.8641357421875
               330000               525000     40.0806007385254
               330000               540000     40.0628089904785
               330000               555000     39.8872833251953
               330000               570000     39.6162414550781
               330000               585000      39.265567779541
               330000               600000     38.8567008972168
               330000               615000     38.4165687561035
               330000               630000     37.9615364074707
               330000               645000     37.5082626342773
               330000               660000     37.0826148986816
               330000               675000     36.6793518066406
               330000               690000     36.3289108276367
               330000               705000     36.0009346008301
               330000               720000     35.7045669555664
               330000               735000      35.439281463623
               330000               750000     35.2150802612305
               330000               765000     35.0896911621094
               330000               780000     35.0696258544922
               330000               795000     35.1934051513672
               330000               810000     35.4461212158203
               330000               825000     35.7672653198242
               330000               840000     36.0349197387695
               330000               855000      36.146411895752
               330000               870000     36.1102256774902
               330000               885000     36.0428199768066
               330000               900000     35.9468841552734
               330000               915000     35.8537063598633
               330000               930000     35.7734413146973
               330000               945000     35.7374305725098
               330000               960000     35.7623291015625
               330000               975000     35.9210777282715
               330000               990000     36.2238121032715
               330000              1005000     36.6759757995605
               330000              1020000     37.2099151611328
               330000              1035000     37.7473983764648
               330000              1050000     38.2483177185059
               330000              1065000     38.6854248046875
               330000              1080000     39.0435104370117
               330000              1095000      39.345645904541
               330000              1110000     39.6033172607422
               330000              1125000      39.837085723877
               330000              1140000     40.0699882507324
               330000              1155000      40.264461517334
               330000              1170000     40.4152565002441
               330000              1185000     40.4389152526855
               330000              1200000     40.3704414367676
               330000              1215000     40.2253456115723
               330000              1230000     40.0094223022461
               330000              1245000     39.7853317260742
               330000              1260000     39.4868698120117
               330000              1275000     39.1802101135254
               330000              1290000     38.8185577392578
               330000              1305000     38.4116821289063
               330000              1320000      37.945728302002
               330000              1335000     37.4060478210449
               330000              1350000     36.8360977172852
               330000              1365000     36.2454528808594
               330000              1380000     35.6766471862793
               330000              1395000     35.1085624694824
               330000              1410000     34.5547027587891
               330000              1425000     34.0498504638672
               330000              1440000     33.6463317871094
               330000              1455000     33.3647003173828
               330000              1470000     33.2534713745117
               330000              1485000     33.2557029724121
               330000              1500000     33.2850608825684
               330000              1515000     33.2117462158203
               330000              1530000     32.9760475158691
               330000              1545000     32.6155967712402
               330000              1560000     32.1529388427734
               330000              1575000     31.5989112854004
               330000              1590000     30.9869899749756
               330000              1605000     30.3415870666504
               330000              1620000     29.7077941894531
               330000              1635000     29.1114444732666
               330000              1650000     28.6694259643555
               330000              1665000     28.4087581634521
               330000              1680000     28.3215656280518
               330000              1695000     28.3231525421143
               330000              1710000     28.3628845214844
               330000              1725000     28.4235134124756
               330000              1740000     28.4723205566406
               330000              1755000     28.5169849395752
               330000              1770000     28.5525722503662
               330000              1785000      28.597448348999
               330000              1800000     28.6686630249023
               330000              1815000     28.8013610839844
               330000              1830000      29.038330078125
               330000              1845000      29.435432434082
               330000              1860000     30.0139446258545
               330000              1875000     30.7353343963623
               330000              1890000     31.5803871154785
               330000              1905000     32.4901733398438
               330000              1920000     33.4018058776855
               330000              1935000     34.3066902160645
               330000              1950000     35.1225357055664
               330000              1965000     35.8407020568848
               330000              1980000     36.4038429260254
               330000              1995000     36.7811546325684
               330000              2010000      36.971981048584
               330000              2025000     37.0077018737793
               330000              2040000     36.9335670471191
               330000              2055000      36.736457824707
               330000              2070000     36.4549102783203
               330000              2085000     36.0828895568848
               330000              2100000     35.6148567199707
               330000              2115000     35.0519142150879
               330000              2130000     34.3847274780273
               330000              2145000     33.6193161010742
               330000              2160000     32.7833213806152
               345000             -1980000     19.8846263885498
               345000             -1965000     18.4707679748535
               345000             -1950000     16.9547157287598
               345000             -1905000      13.406533241272
               345000             -1890000     12.8545732498169
               345000             -1875000     12.4051084518433
               345000             -1860000     12.0546360015869
               345000             -1830000     11.4119186401367
               345000             -1245000     10.6301918029785
               345000             -1230000     12.0322227478027
               345000             -1215000     13.7695255279541
               345000             -1200000     15.4668712615967
               345000             -1185000     17.2967548370361
               345000             -1170000     19.1073951721191
               345000             -1155000     20.9911689758301
               345000             -1140000      22.860668182373
               345000             -1125000     24.6980438232422
               345000             -1110000     26.5503063201904
               345000             -1095000     28.3765716552734
               345000             -1080000     30.2908382415771
               345000             -1065000           32.2421875
               345000             -1050000     34.2221832275391
               345000             -1035000     36.1948776245117
               345000             -1020000     38.1305999755859
               345000             -1005000     39.9797706604004
               345000              -990000     41.6943206787109
               345000              -975000     43.0806579589844
               345000              -960000     44.0622215270996
               345000              -945000     44.6479911804199
               345000              -930000     44.9856796264648
               345000              -915000     45.2098960876465
               345000              -900000     45.2995719909668
               345000              -885000     45.3816299438477
               345000              -870000     45.3877754211426
               345000              -855000     45.3680191040039
               345000              -840000     45.2916107177734
               345000              -825000     45.1368560791016
               345000              -810000     44.9372863769531
               345000              -795000     44.6566162109375
               345000              -780000     44.3733596801758
               345000              -765000     44.0590515136719
               345000              -750000     43.7453002929688
               345000              -735000     43.4413414001465
               345000              -720000      43.123664855957
               345000              -705000     42.8211135864258
               345000              -690000     42.4891395568848
               345000              -675000     42.1591148376465
               345000              -660000     41.8119773864746
               345000              -645000     41.4437484741211
               345000              -630000     41.0540237426758
               345000              -615000     40.6382865905762
               345000              -600000     40.2017822265625
               345000              -585000     39.7279968261719
               345000              -570000     39.1962623596191
               345000              -555000     38.5983467102051
               345000              -540000     37.9419860839844
               345000              -525000     37.2362213134766
               345000              -510000      36.584903717041
               345000              -495000     36.0342407226563
               345000              -480000     35.6765098571777
               345000              -465000      35.499626159668
               345000              -450000     35.4340438842773
               345000              -435000     35.4531097412109
               345000              -420000     35.5466804504395
               345000              -405000     35.6945915222168
               345000              -390000     35.8746948242188
               345000              -375000     36.0633735656738
               345000              -360000     36.2339210510254
               345000              -345000     36.3669586181641
               345000              -330000     36.4573440551758
               345000              -315000     36.5095672607422
               345000              -300000     36.5537643432617
               345000              -285000     36.5932998657227
               345000              -270000      36.634162902832
               345000              -255000     36.6917610168457
               345000              -240000     36.7900276184082
               345000              -225000      36.949535369873
               345000              -210000     37.1748504638672
               345000              -195000     37.4207649230957
               345000              -180000      37.642520904541
               345000              -165000      37.742748260498
               345000              -150000     37.6073913574219
               345000              -135000     37.2431297302246
               345000              -120000     36.7601089477539
               345000              -105000     36.2117347717285
               345000               -90000     35.6351089477539
               345000               -75000     35.0465927124023
               345000               -60000     34.4675750732422
               345000               -45000     33.9155197143555
               345000               -30000     33.3943557739258
               345000               -15000     32.9115753173828
               345000                    0     32.4782028198242
               345000                15000     32.1068153381348
               345000                30000      31.823278427124
               345000                45000     31.6358242034912
               345000                60000      31.531623840332
               345000                75000     31.4849758148193
               345000                90000     31.4945201873779
               345000               105000     31.5346622467041
               345000               120000     31.6031093597412
               345000               135000     31.6827945709229
               345000               150000     31.7537288665771
               345000               165000      31.764476776123
               345000               180000     31.6824264526367
               345000               195000     31.4702415466309
               345000               210000     31.2156505584717
               345000               225000     30.9596862792969
               345000               240000     30.7149276733398
               345000               255000     30.5075454711914
               345000               270000     30.3419151306152
               345000               285000     30.2537956237793
               345000               300000     30.2562732696533
               345000               315000      30.372241973877
               345000               330000     30.6139526367188
               345000               345000      30.979076385498
               345000               360000     31.4606781005859
               345000               375000     32.0400619506836
               345000               390000     32.6913185119629
               345000               405000     33.3926658630371
               345000               420000     34.1439895629883
               345000               435000     34.9500427246094
               345000               450000     35.8085632324219
               345000               465000     36.7092475891113
               345000               480000     37.5963020324707
               345000               495000     38.4271965026855
               345000               510000     39.0497131347656
               345000               525000     39.2352180480957
               345000               540000     39.2341537475586
               345000               555000     39.1054534912109
               345000               570000     38.8970413208008
               345000               585000     38.6292572021484
               345000               600000     38.3155174255371
               345000               615000     37.9735412597656
               345000               630000     37.6206130981445
               345000               645000     37.2643356323242
               345000               660000     36.9462814331055
               345000               675000     36.6493263244629
               345000               690000     36.3927879333496
               345000               705000     36.1558647155762
               345000               720000     35.9384269714355
               345000               735000     35.7594261169434
               345000               750000     35.6199150085449
               345000               765000     35.5739326477051
               345000               780000     35.6339111328125
               345000               795000     35.8273162841797
               345000               810000      36.159740447998
               345000               825000     36.5881614685059
               345000               840000     36.9916496276855
               345000               855000     37.0586013793945
               345000               870000     36.9191284179688
               345000               885000     36.7943954467773
               345000               900000     36.6905059814453
               345000               915000     36.6156234741211
               345000               930000     36.5838050842285
               345000               945000     36.6178321838379
               345000               960000     36.7289199829102
               345000               975000     36.9503898620605
               345000               990000     37.2868804931641
               345000              1005000     37.7350540161133
               345000              1020000     38.2485580444336
               345000              1035000      38.753589630127
               345000              1050000     39.2024002075195
               345000              1065000     39.5821418762207
               345000              1080000     39.8699607849121
               345000              1095000     40.0943412780762
               345000              1110000     40.2808647155762
               345000              1125000     40.4370651245117
               345000              1140000     40.6141204833984
               345000              1155000     40.7530174255371
               345000              1170000     40.8679962158203
               345000              1185000     40.8071670532227
               345000              1200000     40.6134414672852
               345000              1215000     40.3637390136719
               345000              1230000     40.0313262939453
               345000              1245000      39.703441619873
               345000              1260000     39.3247909545898
               345000              1275000     38.9301109313965
               345000              1290000     38.5091819763184
               345000              1305000     38.0528717041016
               345000              1320000     37.5690231323242
               345000              1335000     37.0153198242188
               345000              1350000     36.4441871643066
               345000              1365000     35.8624725341797
               345000              1380000     35.3045310974121
               345000              1395000     34.7689208984375
               345000              1410000     34.2697486877441
               345000              1425000     33.8451309204102
               345000              1440000     33.5499496459961
               345000              1455000     33.4044303894043
               345000              1470000     33.4455261230469
               345000              1485000     33.6574211120605
               345000              1500000     33.8825263977051
               345000              1515000      33.890811920166
               345000              1530000     33.6499786376953
               345000              1545000     33.1957855224609
               345000              1560000      32.651611328125
               345000              1575000       32.03564453125
               345000              1590000      31.387674331665
               345000              1605000     30.7296314239502
               345000              1620000     30.0980625152588
               345000              1635000     29.5139198303223
               345000              1650000     29.0352306365967
               345000              1665000     28.7139568328857
               345000              1680000      28.546459197998
               345000              1695000       28.47802734375
               345000              1710000     28.4651298522949
               345000              1725000     28.4875221252441
               345000              1740000     28.5201625823975
               345000              1755000     28.5639667510986
               345000              1770000     28.6046733856201
               345000              1785000     28.6378879547119
               345000              1800000     28.6705341339111
               345000              1815000     28.7233371734619
               345000              1830000     28.8726787567139
               345000              1845000     29.2026138305664
               345000              1860000     29.7515392303467
               345000              1875000     30.4783382415771
               345000              1890000      31.326358795166
               345000              1905000     32.2717399597168
               345000              1920000     33.2112731933594
               345000              1935000     34.1520385742188
               345000              1950000     35.0088386535645
               345000              1965000     35.7654991149902
               345000              1980000     36.3646125793457
               345000              1995000      36.782154083252
               345000              2010000     37.0400733947754
               345000              2025000     37.1330032348633
               345000              2040000     37.1094856262207
               345000              2055000     36.9642524719238
               345000              2070000     36.7184257507324
               345000              2085000     36.3795890808105
               345000              2100000     35.9258842468262
               345000              2115000     35.3552856445313
               345000              2130000     34.6574440002441
               345000              2145000     33.8453178405762
               360000             -1980000     20.1731624603271
               360000             -1965000     18.7612171173096
               360000             -1950000     17.3429489135742
               360000             -1935000     15.9939947128296
               360000             -1920000      14.844630241394
               360000             -1905000     13.9212512969971
               360000             -1890000     13.2574796676636
               360000             -1875000     12.7460718154907
               360000             -1860000     12.3642959594727
               360000             -1845000      12.025842666626
               360000             -1830000     11.7110996246338
               360000             -1815000      11.404972076416
               360000             -1800000     11.0809259414673
               360000             -1785000     10.7799758911133
               360000             -1770000     10.3917808532715
               360000             -1260000     11.6501550674438
               360000             -1245000      12.636209487915
               360000             -1230000     14.0091152191162
               360000             -1215000       15.66810131073
               360000             -1200000      17.385046005249
               360000             -1185000     19.2397651672363
               360000             -1170000     21.1430587768555
               360000             -1155000     23.1015586853027
               360000             -1140000     25.0948009490967
               360000             -1125000     27.0030975341797
               360000             -1110000     28.9106311798096
               360000             -1095000     30.7717933654785
               360000             -1080000     32.6390380859375
               360000             -1065000     34.5266609191895
               360000             -1050000     36.4243011474609
               360000             -1035000     38.3174133300781
               360000             -1020000     40.2106323242188
               360000             -1005000     42.0052757263184
               360000              -990000     43.7388572692871
               360000              -975000     45.1874809265137
               360000              -960000     46.0067405700684
               360000              -945000     46.3946838378906
               360000              -930000     46.5042991638184
               360000              -915000     46.5731658935547
               360000              -900000     46.5130805969238
               360000              -885000     46.4495658874512
               360000              -870000     46.3412933349609
               360000              -855000     46.1951675415039
               360000              -840000     46.0140991210938
               360000              -825000     45.7546882629395
               360000              -810000      45.463249206543
               360000              -795000      45.101318359375
               360000              -780000     44.7337493896484
               360000              -765000     44.3521957397461
               360000              -750000     43.9627838134766
               360000              -735000     43.5969200134277
               360000              -720000     43.2129745483398
               360000              -705000     42.8483047485352
               360000              -690000     42.4788551330566
               360000              -675000     42.1132965087891
               360000              -660000     41.7480545043945
               360000              -645000     41.3664474487305
               360000              -630000     40.9596633911133
               360000              -615000     40.5226020812988
               360000              -600000     40.0655822753906
               360000              -585000     39.5872039794922
               360000              -570000     39.0733947753906
               360000              -555000     38.5112838745117
               360000              -540000     37.9158325195313
               360000              -525000     37.2857856750488
               360000              -510000     36.6777992248535
               360000              -495000     36.1353187561035
               360000              -480000     35.7299041748047
               360000              -465000     35.4793167114258
               360000              -450000     35.3455543518066
               360000              -435000     35.3043823242188
               360000              -420000     35.3395156860352
               360000              -405000     35.4371643066406
               360000              -390000     35.5754470825195
               360000              -375000     35.7335548400879
               360000              -360000     35.8886413574219
               360000              -345000     36.0170402526855
               360000              -330000     36.1182708740234
               360000              -315000     36.1872673034668
               360000              -300000      36.262939453125
               360000              -285000     36.3443908691406
               360000              -270000     36.4348182678223
               360000              -255000     36.5440368652344
               360000              -240000     36.6772956848145
               360000              -225000     36.8521347045898
               360000              -210000     37.0624656677246
